ply
format ascii 1.0
element vertex 1189
property float x
property float y
property float z
property uchar red
property uchar green
property uchar blue
property uchar alpha
end_header
0.00538676 -0.035007 -0.177328 255 0 0 255
0.148874 0.134308 0.311342 255 0 0 255
0.0703886 -0.273623 -0.000880074 255 0 0 255
-0.0136504 0.0103072 -0.0267409 255 0 0 255
-0.000534231 0.00032906 -0.000379526 255 0 0 255
-0.0185753 -0.064216 0.0308775 255 0 0 255
-0.00846261 -0.013861 -0.00306056 255 0 0 255
-0.0175777 0.0402002 -0.0290428 255 0 0 255
0.0947243 0.115975 -0.276339 255 0 0 255
-0.00442919 -0.00312423 -0.00499069 255 0 0 255
-0 0 0 255 0 0 255
0.168396 0.352827 0.0027164 255 0 0 255
0.177454 -0.335791 -0.117659 255 0 0 255
0.707739 -0.267789 0.122023 255 0 0 255
0.381211 0.378304 0.173385 255 0 0 255
-0.0170792 -0.026789 0.0971716 255 0 0 255
-0.0179554 0.0436259 0.032218 255 0 0 255
0.30087 0.315569 0.253444 255 0 0 255
-0.0142691 -0.009109 0.0302639 255 0 0 255
-0.000516147 -0.000271557 -0.000408454 255 0 0 255
-0.0182606 -0.0805441 0.0288484 255 0 0 255
0.118057 0.252109 0.193521 255 0 0 255
-0.00260321 0.00228766 0.00203733 255 0 0 255
0.511472 0.287172 0.284903 255 0 0 255
-0.0188503 0.0638991 0.0330833 255 0 0 255
-0.00999536 -0.0179867 0.00167973 255 0 0 255
-0.0146499 0.0962777 0.0603944 255 0 0 255
0.0746018 -0.249409 -0.122012 255 0 0 255
-0 -0 0 255 0 0 255
0.0101192 -0.174197 0.0653237 255 0 0 255
0.00175121 0.169551 -0.0281646 255 0 0 255
0.0330122 -0.215404 0.0679553 255 0 0 255
-1.74707e-05 -6.61196e-06 1.25269e-05 255 0 0 255
0.106694 -0.100511 -0.292912 255 0 0 255
0.542715 0.0412782 0.392556 255 0 0 255
-0.0161778 0.0190062 -0.0349155 255 0 0 255
-0.0160324 0.0758107 -0.0720998 255 0 0 255
0.354234 -0.25058 -0.329429 255 0 0 255
-0.00761369 -0.0116444 -0.00369782 255 0 0 255
-0.00348555 -0.00125893 -0.00441815 255 0 0 255
0.0630765 0.151527 -0.219591 255 0 0 255
0.56198 -0.387543 -0.01911 255 0 0 255
0.503614 0.384849 0.132472 255 0 0 255
0.348082 0.176138 -0.374789 255 0 0 255
-0.000936677 -0.00102593 0.00023134 255 0 0 255
-0.00027457 -6.64079e-05 -0.00026708 255 0 0 255
-0 -0 -0 255 0 0 255
0.589982 0.376079 0.0421619 255 0 0 255
-0.0110078 0.0154222 0.0131035 255 0 0 255
-0.0176495 0.074127 -0.0555181 255 0 0 255
0.39632 0.35427 0.2196 255 0 0 255
0.420049 0.256163 -0.330558 255 0 0 255
-0 -0 0 255 0 0 255
-8.18015e-10 -2.36626e-11 7.97418e-10 255 0 0 255
0.761126 -0.17124 0.152956 255 0 0 255
-0 -0 -0 255 0 0 255
0.163224 0.295809 -0.187289 255 0 0 255
0.611616 -0.324188 0.167807 255 0 0 255
-0.0181603 -0.0648172 0.0454298 255 0 0 255
-0.0141512 -0.00649028 0.0303169 255 0 0 255
0.13107 0.29965 -0.135165 255 0 0 255
-0.0102686 0.0250504 -0.135667 255 0 0 255
-0.016949 0.0371168 0.0262437 255 0 0 255
0.201279 -0.227207 0.289227 255 0 0 255
-0.0102843 -0.0991118 0.0821617 255 0 0 255
0.265 -0.369407 0.132082 255 0 0 255
-0 0 0 255 0 0 255
0.499343 -0.334839 0.228875 255 0 0 255
0.663552 0.331051 -0.0518932 255 0 0 255
0.0650093 -0.243007 -0.111521 255 0 0 255
-0 0 -0 255 0 0 255
0.361783 0.335511 0.243752 255 0 0 255
0.551548 0.328063 -0.219195 255 0 0 255
0.770172 -0.21006 -0.051765 255 0 0 255
-0 0 0 255 0 0 255
-0.0182614 -0.0548928 0.0159537 255 0 0 255
0.155925 0.0713072 0.335896 255 0 0 255
0.00656676 -0.120106 0.128194 255 0 0 255
0.713305 -0.215144 0.192289 255 0 0 255
-0.0174914 -0.0405675 -0.0274083 255 0 0 255
-0.00390668 0.00276227 0.00423399 255 0 0 255
-0.00522575 0.00760931 0.000925879 255 0 0 255
0.2554 0.390029 0.0340123 255 0 0 255
0.270824 0.215688 0.332145 255 0 0 255
0.188644 -0.341719 0.116289 255 0 0 255
0.281417 -0.0722338 -0.392845 255 0 0 255
-0.0109324 0.13289 -0.0220751 255 0 0 255
-0 0 -0 255 0 0 255
-0.0152182 -0.0943994 0.052124 255 0 0 255
0.50243 -0.346319 0.209866 255 0 0 255
-0.0104796 0.0164846 -0.00918235 255 0 0 255
-0.0108781 -0.0154035 -0.0123158 255 0 0 255
0.0661648 0.0741787 0.259092 255 0 0 255
-0.0034033 -0.00235105 -0.00353086 255 0 0 255
-0.0136829 -0.11808 -0.0267754 255 0 0 255
0.620431 -0.203969 0.296788 255 0 0 255
0.300143 0.199293 -0.353404 255 0 0 255
0.0747615 0.280359 0.0125679 255 0 0 255
0.579248 0.286215 -0.255833 255 0 0 255
0.514475 -0.0337917 0.401052 255 0 0 255
-0.0156422 -0.105416 -0.0328614 255 0 0 255
-0.0161669 -0.0607698 0.0798507 255 0 0 255
0.350801 0.4128 -0.0115379 255 0 0 255
-0.00251005 -0.0206615 0.157937 255 0 0 255
0.544513 -0.388843 -0.0653596 255 0 0 255
0.788913 0.0548124 -0.17633 255 0 0 255
0.317012 0.095822 -0.396897 255 0 0 255
0.121181 -0.0551662 0.314377 255 0 0 255
-0 -0 0 255 0 0 255
-0.0145314 0.00848587 0.0311983 255 0 0 255
-0 -0 0 255 0 0 255
0.052796 -0.247831 -0.053918 255 0 0 255
0.00857416 0.122052 0.135828 255 0 0 255
-0.0170038 -0.0346549 0.0934627 255 0 0 255
0.00579417 0.179296 0.025737 255 0 0 255
0.172154 0.0845553 0.342693 255 0 0 255
0.0112445 0.0161707 0.190456 255 0 0 255
0.105774 -0.143496 0.270059 255 0 0 255
-0.0152378 -0.0720736 -0.0825403 255 0 0 255
-0.0178765 0.00439569 0.0501352 255 0 0 255
-0.0170866 0.0540755 0.0813787 255 0 0 255
0.026659 -0.146887 0.154831 255 0 0 255
0.580463 -0.00722717 -0.382812 255 0 0 255
-0.00587915 0.000408203 0.00884138 255 0 0 255
0.624751 0.358884 0.0327729 255 0 0 255
-0.00879663 -0.0144469 -0.0037934 255 0 0 255
-0.00316866 0.00180635 0.00354619 255 0 0 255
0.283997 -0.196032 0.346762 255 0 0 255
-0.00885045 0.0748733 -0.116684 255 0 0 255
0.102677 0.137868 0.271532 255 0 0 255
0.606098 -0.367673 -0.0240455 255 0 0 255
-0.0169841 0.0889426 -0.0471437 255 0 0 255
-0.0192197 -0.0199571 -0.0638287 255 0 0 255
-0.0184972 0.00452066 -0.0538198 255 0 0 255
0.0132662 0.175847 -0.0835536 255 0 0 255
-0 -0 -0 255 0 0 255
0.160665 0.339534 -0.0780199 255 0 0 255
0.51074 0.0731225 -0.399494 255 0 0 255
-0.0187977 0.0574307 -0.0377934 255 0 0 255
-0.00334107 0.00131515 0.00416358 255 0 0 255
0.0852288 -0.259041 0.123849 255 0 0 255
0.557072 -0.378229 0.0930391 255 0 0 255
-0 0 -0 255 0 0 255
0.0616305 -0.249296 0.0834606 255 0 0 255
0.124188 -0.267768 -0.178343 255 0 0 255
0.402831 0.124707 0.396059 255 0 0 255
-0.000112015 -4.39038e-05 8.82049e-05 255 0 0 255
0.129006 0.281509 -0.166699 255 0 0 255
0.450113 0.342168 0.234688 255 0 0 255
-0.0163787 0.0258547 -0.0318 255 0 0 255
0.0226257 0.213118 -0.0103496 255 0 0 255
-0.00775361 0.00976408 0.144397 255 0 0 255
0.376996 0.238976 -0.342135 255 0 0 255
0.179808 0.348433 -0.0877667 255 0 0 255
0.00355437 -0.0498071 -0.168806 255 0 0 255
-8.55314e-06 -4.09784e-06 -5.04374e-06 255 0 0 255
0.692521 -0.0222799 -0.310493 255 0 0 255
-0 -0 0 255 0 0 255
0.348275 0.230214 0.342316 255 0 0 255
0.330173 -0.405096 0.0437972 255 0 0 255
-0.0189611 0.068481 -0.0319315 255 0 0 255
-0.00912369 -0.0151298 -0.00420835 255 0 0 255
0.193678 -0.0813402 -0.357175 255 0 0 255
-0.0187447 -0.0494192 -0.0471663 255 0 0 255
0.157947 -0.298327 0.170498 255 0 0 255
0.398055 -0.346011 -0.231252 255 0 0 255
-0 0 -0 255 0 0 255
-0.00101871 -0.000898982 0.000560458 255 0 0 255
0.117437 -0.255962 -0.186269 255 0 0 255
0.316806 -0.341448 0.219789 255 0 0 255
0.786881 -0.170871 0.0725382 255 0 0 255
-0 -0 -0 255 0 0 255
0.150748 0.291033 -0.180112 255 0 0 255
-0.0190594 -0.0320982 -0.0644218 255 0 0 255
-0.00169622 0.00066002 -0.00185064 255 0 0 255
-0 0 -0 255 0 0 255
0.0694707 0.0234592 0.272266 255 0 0 255
0.622879 0.359956 0.0329138 255 0 0 255
-0.0140238 -0.0948249 0.0620686 255 0 0 255
-0.0103516 0.0117833 -0.0139048 255 0 0 255
-0.0101931 -0.00505014 -0.0175782 255 0 0 255
-0.00206424 0.038956 0.155931 255 0 0 255
0.267802 -0.324828 0.222639 255 0 0 255
0.437152 0.413924 0.0434193 255 0 0 255
0.0265444 0.16282 0.141706 255 0 0 255
0.204389 -0.309624 0.200877 255 0 0 255
-0 -0 -0 255 0 0 255
-0.012791 -0.0261909 -0.000478856 255 0 0 255
0.186892 -0.0464806 -0.36006 255 0 0 255
0.576312 0.175489 -0.342755 255 0 0 255
0.257702 0.222704 -0.324946 255 0 0 255
0.725392 0.270623 -0.0668438 255 0 0 255
0.0147827 0.0517883 0.190628 255 0 0 255
-0.00300971 -0.156412 -0.0211729 255 0 0 255
0.269409 -0.0695284 0.387286 255 0 0 255
0.0982703 -0.232425 -0.190491 255 0 0 255
-0.00802607 -0.0039448 0.0125925 255 0 0 255
0.0901818 0.285009 0.076566 255 0 0 255
0.024686 0.073049 -0.203443 255 0 0 255
-0.0120374 0.02729 0.126217 255 0 0 255
0.196054 0.116834 0.346504 255 0 0 255
-0 -0 0 255 0 0 255
-0 0 -0 255 0 0 255
0.217968 0.371344 0.0669673 255 0 0 255
0.105998 0.302846 0.0623563 255 0 0 255
0.00277998 -0.168834 0.0301684 255 0 0 255
-0.0166792 -0.104996 0.00179191 255 0 0 255
-6.39151e-06 -3.20197e-06 3.64914e-06 255 0 0 255
-0.000666231 -0.000186474 0.000687014 255 0 0 255
-0.00385809 -0.00276346 -0.00409711 255 0 0 255
0.00394946 0.0367716 0.171661 255 0 0 255
-0.000194257 -0.000188304 -4.18637e-05 255 0 0 255
-0 0 0 255 0 0 255
0.183049 0.126099 -0.338656 255 0 0 255
0.0951798 -0.172825 0.240495 255 0 0 255
-0 -0 0 255 0 0 255
0.00466421 -0.175956 0.0121686 255 0 0 255
-0 -0 0 255 0 0 255
-0.0109569 0.0175134 -0.0100063 255 0 0 255
0.249793 0.166317 0.351224 255 0 0 255
0.0311389 -0.00859347 -0.227292 255 0 0 255
-3.86014e-06 9.99973e-07 3.06215e-06 255 0 0 255
-0 -0 0 255 0 0 255
-0 0 0 255 0 0 255
-0.0150279 0.0289047 0.111545 255 0 0 255
0.0281665 0.0646122 0.210443 255 0 0 255
-0.00232068 -0.00247764 0.00123656 255 0 0 255
0.204435 -0.368866 -0.00768204 255 0 0 255
0.275336 -0.392529 0.0449614 255 0 0 255
-0.00228962 -0.000910298 -0.0026155 255 0 0 255
0.043246 -0.241063 -0.0159756 255 0 0 255
0.0239503 -0.212898 -0.0118762 255 0 0 255
0.0800079 -0.254295 0.121833 255 0 0 255
-0.00680355 0.00549244 -0.00857777 255 0 0 255
0.696985 0.138676 0.272233 255 0 0 255
0.210079 -0.259209 0.266788 255 0 0 255
-0.00818589 -0.0136702 0.000660644 255 0 0 255
0.181045 -0.349906 0.0710669 255 0 0 255
-0.00152285 0.000593792 0.00163554 255 0 0 255
0.810859 -0.122781 0.0348772 255 0 0 255
-0.0187444 0.0369669 -0.075075 255 0 0 255
0.780754 -0.0378611 -0.196256 255 0 0 255
-0.0108286 -0.00695003 0.0189616 255 0 0 255
0.179395 -0.292948 -0.205242 255 0 0 255
0.0860173 -0.2892 -0.00816715 255 0 0 255
0.246216 -0.302721 -0.243039 255 0 0 255
-0.00152179 0.000266137 0.00180196 255 0 0 255
-0.000955986 0.000205821 0.00106089 255 0 0 255
0.418229 -0.179477 -0.376277 255 0 0 255
-2.49267e-06 1.72825e-06 -8.73613e-07 255 0 0 255
0.783136 -0.192034 0.0207723 255 0 0 255
-0.0145957 -0.0284816 0.0175512 255 0 0 255
-0 0 -0 255 0 0 255
-0 0 -0 255 0 0 255
0.209278 0.23399 -0.292838 255 0 0 255
0.817625 -0.0858911 -0.0620553 255 0 0 255
-0.00122276 0.000755799 -0.00102715 255 0 0 255
0.128618 0.273235 0.177846 255 0 0 255
-7.23929e-08 -3.16274e-08 -4.19121e-08 255 0 0 255
0.162115 -0.292183 0.185727 255 0 0 255
0.415127 -0.302279 -0.286711 255 0 0 255
-0.00593304 0.0829356 -0.122434 255 0 0 255
0.724996 0.168465 -0.222968 255 0 0 255
-0.0121165 -0.0995847 -0.0746518 255 0 0 255
-0.00765532 0.00773252 0.00909329 255 0 0 255
-0.00780706 0.0615749 -0.129814 255 0 0 255
0.0276269 0.21471 0.051245 255 0 0 255
0.322799 0.0749111 0.399749 255 0 0 255
0.0762685 0.197293 -0.199908 255 0 0 255
-0.00382157 -0.00221726 -0.004453 255 0 0 255
0.0184033 0.038724 0.200632 255 0 0 255
0.487085 0.207878 -0.354867 255 0 0 255
0.350521 -0.00789871 0.410325 255 0 0 255
0.0207114 0.118936 -0.17007 255 0 0 255
0.08878 -0.250058 0.147349 255 0 0 255
-0.000145956 4.8261e-05 -0.000125087 255 0 0 255
-0.0169485 0.0853001 0.0510141 255 0 0 255
-0.00072526 0.000459441 0.000540926 255 0 0 255
0.81668 -0.0687429 -0.0857688 255 0 0 255
-0.00585882 -0.00355494 -0.0077603 255 0 0 255
0.395759 0.0427447 -0.41462 255 0 0 255
-0.0175773 -0.00578629 -0.0466622 255 0 0 255
-0 0 -0 255 0 0 255
-0.000185523 -0.000175607 4.63582e-05 255 0 0 255
-0.00202013 0.00195999 0.00122404 255 0 0 255
0.796232 -0.143608 0.0827432 255 0 0 255
0.239986 0.30946 -0.233437 255 0 0 255
0.400724 -0.0506331 -0.413633 255 0 0 255
-0.0167079 0.107651 0.00437175 255 0 0 255
0.472877 -0.409986 -0.023494 255 0 0 255
0.00904167 -0.151437 -0.104136 255 0 0 255
-0.018557 0.0554027 0.0205256 255 0 0 255
0.109945 -0.185088 0.247486 255 0 0 255
-0.00073025 0.000143034 -0.000795979 255 0 0 255
0.316928 -0.350199 -0.20785 255 0 0 255
-0.0182336 0.0444355 -0.0348753 255 0 0 255
-0.0112032 0.0209693 -0.00304135 255 0 0 255
-0.0111539 0.019373 -0.00792148 255 0 0 255
0.685814 -0.30041 0.0931429 255 0 0 255
0.205021 -0.349717 0.117691 255 0 0 255
-0 0 -0 255 0 0 255
0.198209 0.344338 -0.132276 255 0 0 255
-0.0131601 0.0240169 0.0130958 255 0 0 255
-6.90673e-06 -4.3483e-06 -3.01295e-06 255 0 0 255
-0.0109488 0.135162 -0.00182921 255 0 0 255
-0.0185936 0.0516127 0.0407029 255 0 0 255
-0.0119848 -0.116403 0.0464208 255 0 0 255
-0.0187543 0.056717 -0.0269944 255 0 0 255
0.00977196 -0.00891661 -0.190304 255 0 0 255
0.800614 -0.0767334 0.135099 255 0 0 255
-0.00913963 0.00946597 -0.0118908 255 0 0 255
-0.00569589 -0.00115366 -0.0083863 255 0 0 255
0.548877 -0.009014 -0.394913 255 0 0 255
-0 -0 -0 255 0 0 255
0.00152776 0.0027388 -0.172491 255 0 0 255
-0.014908 -0.04308 0.103561 255 0 0 255
0.55868 0.221553 -0.323426 255 0 0 255
-0.000687181 -0.156677 -0.0461818 255 0 0 255
-0.00527937 0.00676956 -0.00315795 255 0 0 255
0.127381 -0.220319 -0.238492 255 0 0 255
0.450204 -0.41124 -0.0404872 255 0 0 255
-0.0187625 -0.040212 -0.0527801 255 0 0 255
0.522182 -0.345111 -0.205122 255 0 0 255
0.366475 -0.296712 0.287653 255 0 0 255
-0.0156075 0.014653 -0.0336791 255 0 0 255
0.0440796 -0.192533 0.142424 255 0 0 255
-0.000220993 0.000224857 -3.49484e-05 255 0 0 255
-0.00620027 -0.00558568 0.00714333 255 0 0 255
-0 -0 -0 255 0 0 255
0.0454785 -0.13507 -0.203639 255 0 0 255
-0.0184802 0.0308113 -0.0498326 255 0 0 255
0.184869 0.304468 0.194896 255 0 0 255
-0.000382604 -0.000183673 -0.00030639 255 0 0 255
0.785569 -0.180353 0.0541257 255 0 0 255
-0.0121038 -0.11512 0.04776 255 0 0 255
0.442659 -0.409086 -0.0627794 255 0 0 255
0.349082 -0.38682 0.138165 255 0 0 255
0.0919089 0.261428 0.138526 255 0 0 255
0.539463 0.257966 -0.303822 255 0 0 255
0.207648 0.227007 -0.297305 255 0 0 255
0.0306533 0.223626 0.031527 255 0 0 255
0.000184524 0.106975 -0.124484 255 0 0 255
0.318418 0.263545 0.311629 255 0 0 255
-0.0176389 -0.0479562 -0.012226 255 0 0 255
-0.00178509 0.00217541 -0.000228536 255 0 0 255
0.621347 0.0973413 -0.349486 255 0 0 255
-0.0143057 -0.108293 -0.0436507 255 0 0 255
-0.0159815 0.0277219 0.106347 255 0 0 255
0.241491 0.233118 -0.310493 255 0 0 255
0.292131 -0.213544 0.33889 255 0 0 255
-0 0 -0 255 0 0 255
0.768212 -0.0395209 -0.217804 255 0 0 255
0.148178 0.340359 -0.011539 255 0 0 255
0.676967 -0.172513 -0.273981 255 0 0 255
0.39034 -0.176942 0.374695 255 0 0 255
0.1253 0.207663 -0.249416 255 0 0 255
-0.0187486 0.0467239 -0.0584241 255 0 0 255
-0.0141156 0.0039609 -0.0299881 255 0 0 255
-0.00650097 0.00788042 0.00555024 255 0 0 255
-0.00231727 0.00257812 0.00107857 255 0 0 255
0.145311 0.0955092 -0.325272 255 0 0 255
-0.0100284 0.0831327 0.103357 255 0 0 255
-0.0154243 0.0111308 0.0344894 255 0 0 255
-0 -0 -0 255 0 0 255
-0.0171631 -0.04336 -0.016017 255 0 0 255
0.746792 0.199576 0.153138 255 0 0 255
-0.0185257 -0.00834772 0.0895261 255 0 0 255
-0.0035961 0.000475763 -0.00483603 255 0 0 255
0.00315394 0.0770495 -0.155366 255 0 0 255
-0.00890596 -0.00399864 -0.0145805 255 0 0 255
-0.00237438 -0.00239181 -0.0014164 255 0 0 255
0.476917 -0.356007 0.202664 255 0 0 255
0.208192 -0.339365 -0.151238 255 0 0 255
0.275726 -0.12129 -0.379 255 0 0 255
-0 0 0 255 0 0 255
-0 -0 0 255 0 0 255
0.394297 -0.00344597 0.414001 255 0 0 255
0.0204389 -0.105498 -0.178183 255 0 0 255
0.147433 -0.269767 0.201822 255 0 0 255
0.226724 -0.37128 -0.0755166 255 0 0 255
0.37039 0.395375 0.126866 255 0 0 255
0.547582 0.214243 0.330456 255 0 0 255
-0 0 -0 255 0 0 255
0.297356 0.296969 -0.275998 255 0 0 255
-0.016353 -0.00335417 0.108288 255 0 0 255
-0.00776318 -0.00841722 -0.00867155 255 0 0 255
-0 0 -0 255 0 0 255
0.0801311 0.260247 0.115751 255 0 0 255
0.190686 0.335826 0.141779 255 0 0 255
0.029101 0.149556 0.161021 255 0 0 255
0.241888 -0.258173 -0.2883 255 0 0 255
0.137582 0.318596 0.0967929 255 0 0 255
-0 0 0 255 0 0 255
0.127401 -0.268528 0.179035 255 0 0 255
-0.0110582 -0.124851 0.0369239 255 0 0 255
0.007694 -0.137348 -0.117314 255 0 0 255
-0.0126135 -0.014052 0.0213927 255 0 0 255
-0.00232586 -0.00284507 0.000652823 255 0 0 255
0.0838558 0.285675 0.0465863 255 0 0 255
0.151897 -0.334595 0.0608882 255 0 0 255
-0 0 0 255 0 0 255
0.06905 0.0870825 0.258231 255 0 0 255
-0.00540707 0.0032851 -0.00693375 255 0 0 255
-0.0178399 -0.0431146 -0.0846033 255 0 0 255
-0 -0 0 255 0 0 255
-0 -0 0 255 0 0 255
0.809983 0.0130674 -0.132472 255 0 0 255
0.806923 -0.0684882 0.120856 255 0 0 255
-0.0134739 -0.0557657 0.103756 255 0 0 255
0.767017 0.0318632 -0.221361 255 0 0 255
-0.00314306 0.000102908 -0.00416124 255 0 0 255
0.534188 0.398689 -0.0286911 255 0 0 255
0.340433 0.411478 -0.00846044 255 0 0 255
0.145046 -0.315224 0.114528 255 0 0 255
-0.00396845 -0.0190653 -0.157032 255 0 0 255
-0 -0 0 255 0 0 255
-0.0136283 -0.00568244 -0.0280724 255 0 0 255
0.113144 0.0975615 0.29773 255 0 0 255
0.00701629 0.0267291 0.180485 255 0 0 255
-0.0190703 -0.0682469 -0.00643643 255 0 0 255
-0.0181538 0.0493804 -0.0223098 255 0 0 255
-0 -0 0 255 0 0 255
0.00156775 -0.133905 -0.0994533 255 0 0 255
-0.00193719 -0.00103093 -0.00195148 255 0 0 255
-0.00753135 -0.0321731 -0.143535 255 0 0 255
-0.0083519 0.0125793 0.00568407 255 0 0 255
0.00139931 -0.0510727 0.159642 255 0 0 255
-0.0180286 -0.0935573 0.00640896 255 0 0 255
-0.015113 0.0332607 -0.0103324 255 0 0 255
0.155829 0.29727 0.174425 255 0 0 255
0.0210816 0.180201 0.103539 255 0 0 255
0.182636 0.214651 -0.29082 255 0 0 255
0.194808 -0.344725 -0.119561 255 0 0 255
-0.00816026 -0.0120653 -0.145305 255 0 0 255
-0.0179633 0.0704306 -0.0545698 255 0 0 255
-0.00339489 0.00165537 -0.00403938 255 0 0 255
-0.0184101 -0.0245392 0.084034 255 0 0 255
0.318307 0.278057 -0.301249 255 0 0 255
-0.0128844 0.115386 -0.0475222 255 0 0 255
-0.00216301 -0.00107939 -0.00229032 255 0 0 255
-0.0100238 -0.0110655 0.0138762 255 0 0 255
0.034942 0.232475 -0.0010822 255 0 0 255
0.241093 -0.00077377 0.384207 255 0 0 255
0.00420225 0.0256816 0.174415 255 0 0 255
-0.00835372 -0.0703411 -0.122144 255 0 0 255
0.550796 0.282752 0.273126 255 0 0 255
0.24029 -0.106098 -0.371475 255 0 0 255
-0.0082389 -0.106621 0.0847682 255 0 0 255
0.00300349 -0.0803081 0.14923 255 0 0 255
-0 0 -0 255 0 0 255
0.364377 0.414341 -0.00953512 255 0 0 255
-0.0108327 0.00421519 -0.136598 255 0 0 255
0.141941 0.236787 0.237314 255 0 0 255
0.552744 -0.390841 0.0177252 255 0 0 255
0.2898 -0.0575077 -0.397477 255 0 0 255
0.118163 0.316986 -0.0387753 255 0 0 255
0.207379 -0.2779 -0.247753 255 0 0 255
0.0980227 0.302724 -0.00444662 255 0 0 255
-0.0099735 0.0911529 0.0961211 255 0 0 255
-0 0 0 255 0 0 255
-0 0 0 255 0 0 255
-0.0173176 0.0141046 0.0446336 255 0 0 255
-0.000512557 -0.000186119 0.00048214 255 0 0 255
0.00298725 -0.0213116 -0.17441 255 0 0 255
0.113129 0.296642 0.104869 255 0 0 255
0.0107618 -0.102655 -0.158232 255 0 0 255
0.797164 -0.163986 0.00406089 255 0 0 255
0.0124971 -0.188661 0.0357806 255 0 0 255
0.801117 -0.114538 -0.105562 255 0 0 255
0.0634855 0.154201 -0.218245 255 0 0 255
0.800013 0.138225 -0.0808662 255 0 0 255
-0.00634595 0.000159988 -0.00970895 255 0 0 255
-0 0 0 255 0 0 255
0.603816 -0.0179591 -0.371463 255 0 0 255
-0.00260027 -0.00307446 -0.00099761 255 0 0 255
-0.0188328 -0.060373 -0.0292936 255 0 0 255
-0.00243743 -0.0026015 -0.00129392 255 0 0 255
-0 -0 0 255 0 0 255
0.722401 -0.0257608 0.278099 255 0 0 255
-0 0 -0 255 0 0 255
-0.018635 0.0524461 0.0437672 255 0 0 255
-0.0187308 0.0542412 -0.0377891 255 0 0 255
-0.0183942 0.0633855 0.0504869 255 0 0 255
-0.0118921 -0.120278 0.0393029 255 0 0 255
-0 0 0 255 0 0 255
0.133762 0.0665232 0.321986 255 0 0 255
0.553167 0.199168 -0.339936 255 0 0 255
0.0411733 0.241202 -0.00110145 255 0 0 255
0.41251 -0.374838 0.177577 255 0 0 255
-0.0120711 -0.00446199 -0.0231252 255 0 0 255
-0 0 -0 255 0 0 255
0.0443722 -0.242228 -0.0202975 255 0 0 255
-0.0155792 -0.0616813 -0.0897823 255 0 0 255
0.70981 -0.292632 -0.00153963 255 0 0 255
0.519176 0.371846 -0.158427 255 0 0 255
-0.0164185 -0.0804795 -0.0626035 255 0 0 255
0.036069 -0.0015572 -0.234688 255 0 0 255
0.601809 -0.0287946 0.369276 255 0 0 255
0.0164736 -0.0442815 -0.19778 255 0 0 255
-0 0 -0 255 0 0 255
-0 0 0 255 0 0 255
0.363526 -0.263866 -0.320093 255 0 0 255
-0.00116525 0.0010197 0.000677931 255 0 0 255
0.0648109 0.230911 0.136155 255 0 0 255
-0 -0 0 255 0 0 255
-0.0107497 -0.0189339 0.00675704 255 0 0 255
0.13747 -0.325922 0.0552779 255 0 0 255
0.0849119 0.0145005 0.288445 255 0 0 255
0.328737 0.0537575 -0.406529 255 0 0 255
0.678576 -0.314168 -0.0666305 255 0 0 255
0.190065 0.364459 0.0056219 255 0 0 255
0.265003 -0.101978 -0.381307 255 0 0 255
-0 -0 0 255 0 0 255
0.0288369 0.223352 0.000457413 255 0 0 255
0.0908683 0.272742 -0.114521 255 0 0 255
0.0887336 -0.0685514 -0.28616 255 0 0 255
-0.000564369 0.0197643 0.163796 255 0 0 255
-0.00399373 -0.0054445 0.000955729 255 0 0 255
-0.0185391 0.0827414 0.0290248 255 0 0 255
-0.018184 -0.0212896 0.0521702 255 0 0 255
-0.0187365 0.0540495 -0.0484509 255 0 0 255
-0.0175077 -0.0985067 0.0053115 255 0 0 255
-0.0099216 -0.0177539 -0.0015043 255 0 0 255
0.473808 -0.378997 -0.159218 255 0 0 255
0.295427 0.353312 0.194703 255 0 0 255
-0.018755 0.057547 -0.0447562 255 0 0 255
-0.00160861 -0.000903806 -0.00151474 255 0 0 255
-0 0 0 255 0 0 255
0.438242 0.013263 0.413683 255 0 0 255
-0 0 0 255 0 0 255
0.451803 -0.273969 0.308822 255 0 0 255
0.479157 0.393241 -0.124034 255 0 0 255
0.0410933 -0.149163 0.181953 255 0 0 255
0.00998588 -0.0449114 -0.184782 255 0 0 255
-0.0187265 0.013173 0.0868211 255 0 0 255
-0 0 -0 255 0 0 255
-0.000115798 0.000111159 -2.18384e-05 255 0 0 255
-0.00147224 0.00124614 0.000977296 255 0 0 255
0.794678 -0.0934614 -0.143515 255 0 0 255
-0.00204897 -0.138206 0.0735463 255 0 0 255
-0.0132041 -0.0240595 0.0140327 255 0 0 255
0.0462984 0.239194 0.0624731 255 0 0 255
0.685304 0.225848 -0.224057 255 0 0 255
-0 -0 -0 255 0 0 255
-0.00232548 0.159959 0.0229101 255 0 0 255
-0 0 -0 255 0 0 255
0.796775 0.137861 -0.0956619 255 0 0 255
-0.0170038 0.042246 -0.0935137 255 0 0 255
0.120414 -0.043952 0.315641 255 0 0 255
0.682606 -0.315929 -0.0332823 255 0 0 255
-0.0157675 -0.0265866 -0.0267572 255 0 0 255
-0.00341792 -0.00379075 -0.00206996 255 0 0 255
-0 -0 0 255 0 0 255
0.0354499 0.0109123 -0.23356 255 0 0 255
0.181605 0.221364 -0.285063 255 0 0 255
-0.0018384 0.00209569 -0.000611516 255 0 0 255
0.453263 -0.291459 0.292175 255 0 0 255
-0.00963853 -0.0147563 0.00831763 255 0 0 255
-0.00694858 0.0107213 -0.00210858 255 0 0 255
-0.00475095 0.00679009 -0.00061243 255 0 0 255
0.0658552 0.00437799 -0.271762 255 0 0 255
0.23775 -0.180855 0.337951 255 0 0 255
0.389722 -0.115404 0.397653 255 0 0 255
0.0932732 -0.175453 -0.239196 255 0 0 255
0.047476 0.058755 0.240417 255 0 0 255
-0 0 0 255 0 0 255
0.613116 0.122754 -0.346292 255 0 0 255
0.282052 0.00617361 0.397067 255 0 0 255
0.0759554 -0.158946 -0.230316 255 0 0 255
-0.0083353 -0.040157 0.1347 255 0 0 255
-0.0075964 -0.131076 -0.0567025 255 0 0 255
0.208125 0.34649 -0.139724 255 0 0 255
0.0339562 0.140101 0.178968 255 0 0 255
0.0244875 0.177183 0.118423 255 0 0 255
-0.017915 -0.033018 -0.0912818 255 0 0 255
0.697658 -0.0583582 -0.300864 255 0 0 255
0.10206 0.228912 0.200656 255 0 0 255
-0.0175117 -0.0441564 -0.021225 255 0 0 255
-0.0188529 0.0179287 -0.0571514 255 0 0 255
0.444105 -0.412177 -0.0351754 255 0 0 255
0.0288628 0.00364257 -0.223986 255 0 0 255
0.0844417 -0.255178 -0.132473 255 0 0 255
0.101337 -0.299572 -0.0468337 255 0 0 255
-0 0 -0 255 0 0 255
0.503372 -0.164571 -0.37227 255 0 0 255
0.287984 0.32355 0.237908 255 0 0 255
0.2205 -0.000771395 0.37618 255 0 0 255
0.0252112 -0.0939653 -0.194318 255 0 0 255
0.0596317 -0.245941 0.0859268 255 0 0 255
0.829612 -0.0323791 -0.0204544 255 0 0 255
0.696311 -0.300307 0.0552116 255 0 0 255
0.720717 -0.240879 0.144333 255 0 0 255
-0.00742213 0.0107819 0.00470985 255 0 0 255
-0.000665761 -0.000223122 0.000660523 255 0 0 255
-0.0102909 0.0172393 0.00712116 255 0 0 255
0.610364 0.353252 0.103446 255 0 0 255
-0 0 0 255 0 0 255
-0.004011 0.00133507 -0.00529552 255 0 0 255
-0.0151089 0.00597134 -0.0336438 255 0 0 255
0.805337 -0.0887813 -0.11486 255 0 0 255
0.150941 -0.0663507 0.333296 255 0 0 255
-0.0164364 -0.0340947 0.0266065 255 0 0 255
-0.0173529 -0.079362 0.0461939 255 0 0 255
0.0128441 0.109829 0.157206 255 0 0 255
-0 0 0 255 0 0 255
0.219505 0.28508 -0.250381 255 0 0 255
0.186377 -0.324972 -0.156956 255 0 0 255
0.543369 -0.360215 0.159742 255 0 0 255
0.0804036 0.114876 0.259752 255 0 0 255
-0.0170156 0.101737 -0.0238331 255 0 0 255
-0.00718843 -0.0028983 -0.0109595 255 0 0 255
-0 -0 -0 255 0 0 255
0.511163 0.048126 0.400629 255 0 0 255
-0 0 0 255 0 0 255
0.331492 -0.406924 -0.0266796 255 0 0 255
0.356693 0.0912686 0.401656 255 0 0 255
-0.0183826 -0.0755581 0.0314208 255 0 0 255
0.646368 -0.00457229 -0.347041 255 0 0 255
0.663286 0.110429 -0.316805 255 0 0 255
-0.0119667 -0.0553134 -0.116257 255 0 0 255
-0.00884473 -0.010342 0.0105126 255 0 0 255
0.222803 -0.253094 0.2802 255 0 0 255
-3.01907e-07 2.64024e-07 -4.28822e-08 255 0 0 255
-0.00334811 -0.00429288 0.00114036 255 0 0 255
0.11444 -0.0965876 0.298265 255 0 0 255
-0.0168526 0.0256967 0.036482 255 0 0 255
0.104404 -0.303147 -0.0402874 255 0 0 255
0.774516 0.150826 0.145981 255 0 0 255
-0 0 -0 255 0 0 255
-0.0104416 0.110801 0.0718431 255 0 0 255
0.0272465 -0.218116 0.0102532 255 0 0 255
0.161426 -0.293767 0.182394 255 0 0 255
0.61017 0.366557 0.0373558 255 0 0 255
0.300856 -0.206143 -0.348295 255 0 0 255
0.0245482 -0.147312 -0.153041 255 0 0 255
0.712613 -0.289473 0.0124141 255 0 0 255
0.159591 -0.086384 -0.336689 255 0 0 255
0.0136251 -0.183067 -0.0651695 255 0 0 255
-0.0128813 -0.0261184 0.121697 255 0 0 255
-0.00953784 0.113064 0.0743384 255 0 0 255
-0.00356507 -0.00104387 -0.00464382 255 0 0 255
0.0995699 0.303976 -0.00906463 255 0 0 255
0.134657 -0.188936 -0.270938 255 0 0 255
-0 -0 0 255 0 0 255
0.681558 0.141013 0.286135 255 0 0 255
0.521996 -0.106313 -0.388492 255 0 0 255
-0.013266 -0.0611637 -0.105503 255 0 0 255
-0.0134699 0.022854 0.0166964 255 0 0 255
-0.00497364 0.107923 0.1027 255 0 0 255
-0.00270094 -0.000283582 0.00348638 255 0 0 255
0.0565105 0.255301 -0.0511815 255 0 0 255
-0.0180299 -0.00820996 0.0516394 255 0 0 255
0.23803 -0.334782 -0.189154 255 0 0 255
0.383464 0.199236 -0.366879 255 0 0 255
0.525982 0.295754 0.270582 255 0 0 255
-0.0182399 -0.0573302 -0.0629132 255 0 0 255
0.718038 0.191987 0.210889 255 0 0 255
0.0415443 0.0556313 0.233174 255 0 0 255
-0.0166436 0.107794 -0.00870629 255 0 0 255
-0.0074138 -0.00836874 0.00791104 255 0 0 255
-0.0195594 0.00538728 -0.0739176 255 0 0 255
-0.00290237 0.00376677 -0.00045213 255 0 0 255
-4.41381e-05 -4.40083e-05 -3.96359e-06 255 0 0 255
0.600608 -0.365104 -0.0681011 255 0 0 255
0.760533 0.230851 0.0327643 255 0 0 255
-1.27558e-07 -4.91724e-08 8.16349e-08 255 0 0 255
0.024632 0.158575 -0.143136 255 0 0 255
-0.0162468 -0.0395355 -0.00877844 255 0 0 255
0.140058 0.187727 0.275688 255 0 0 255
-0.00441544 -0.00595285 -0.00151765 255 0 0 255
-0.00858226 -0.0138901 0.00437421 255 0 0 255
-0 -0 0 255 0 0 255
-0.0190879 0.0650994 0.0163305 255 0 0 255
0.82225 -0.0830382 0.0198653 255 0 0 255
-0.0160633 0.0194651 0.0346712 255 0 0 255
0.0820441 0.171627 -0.229965 255 0 0 255
0.430476 0.344942 -0.235549 255 0 0 255
0.327853 0.359401 0.197529 255 0 0 255
0.313846 0.185153 0.361735 255 0 0 255
0.120971 0.103048 0.302323 255 0 0 255
-0.0184018 -0.0706709 -0.0449731 255 0 0 255
-0.0123631 0.0354839 0.12228 255 0 0 255
0.00891005 0.130947 0.12827 255 0 0 255
0.248218 -0.0686453 -0.383097 255 0 0 255
0.249745 -0.0692371 -0.383528 255 0 0 255
-0.000676937 0.000500819 0.00042568 255 0 0 255
-0.0180834 0.0496058 0.0216349 255 0 0 255
0.369668 -0.392729 -0.129825 255 0 0 255
0.058577 -0.205007 -0.159332 255 0 0 255
-0.0190524 -0.0712479 0.00629586 255 0 0 255
0.100065 -0.183699 0.237829 255 0 0 255
0.660248 -0.235411 -0.240075 255 0 0 255
0.660214 0.314152 0.121542 255 0 0 255
0.303262 -0.0624958 0.397356 255 0 0 255
-0.0177372 -0.00595913 -0.102112 255 0 0 255
-0.0135807 -0.0287903 0.00391018 255 0 0 255
0.248251 -0.10679 0.371705 255 0 0 255
-0.0043998 0.00122332 -0.00601121 255 0 0 255
-0.018831 0.00876663 0.0598122 255 0 0 255
-0 -0 -0 255 0 0 255
-0 0 0 255 0 0 255
0.741592 0.0189221 -0.258727 255 0 0 255
-0.00989866 0.0116745 -0.0124119 255 0 0 255
0.505233 -0.278078 0.293475 255 0 0 255
-0.0144068 0.0197134 -0.024519 255 0 0 255
-0 0 0 255 0 0 255
-0.0166897 0.0781628 0.0618505 255 0 0 255
-0.0163705 0.00463773 0.108346 255 0 0 255
-0.0190193 0.022238 0.0640773 255 0 0 255
-0 0 0 255 0 0 255
0.0246074 0.213571 -0.0350057 255 0 0 255
0.774388 0.180378 -0.111 255 0 0 255
0.22401 0.258465 0.278314 255 0 0 255
0.153186 -0.283008 0.189584 255 0 0 255
0.283413 0.391348 -0.0840475 255 0 0 255
0.147647 0.132244 0.311348 255 0 0 255
0.741864 -0.255933 0.0169731 255 0 0 255
0.0197377 0.100156 0.178948 255 0 0 255
-0.0138694 0.0267236 -0.120219 255 0 0 255
-0.00887251 0.00955657 0.0111309 255 0 0 255
0.482657 0.41143 0.00334071 255 0 0 255
0.0614076 0.214918 -0.154368 255 0 0 255
0.168077 0.253972 0.243622 255 0 0 255
-0.0150133 0.0262884 0.0224414 255 0 0 255
-0.0180004 0.0273318 -0.0451136 255 0 0 255
-0 -0 0 255 0 0 255
-0 -0 -0 255 0 0 255
0.631008 0.297723 -0.19749 255 0 0 255
0.0901547 0.207965 -0.208742 255 0 0 255
-0.0130643 -0.016028 0.0219106 255 0 0 255
0.242217 -0.109152 -0.371325 255 0 0 255
0.0557638 -0.0498941 -0.254932 255 0 0 255
-0.00400693 -0.116177 0.0939381 255 0 0 255
-0.0132209 -0.00538674 0.0270512 255 0 0 255
0.426986 -0.0915477 -0.406459 255 0 0 255
0.193373 0.300636 -0.210439 255 0 0 255
-0 -0 0 255 0 0 255
0.00484545 0.109331 -0.137414 255 0 0 255
-0.00400275 -0.105946 0.104994 255 0 0 255
-0.0143691 0.0217254 0.0230799 255 0 0 255
-0.00879495 -0.00204659 0.0148499 255 0 0 255
-0.0139001 0.00980294 0.028266 255 0 0 255
-0 -0 -0 255 0 0 255
0.15335 -0.311198 0.138709 255 0 0 255
-0.0171642 0.0381927 -0.0262289 255 0 0 255
-0.0188573 -0.0244846 0.0729336 255 0 0 255
0.299465 -0.400768 -0.0234965 255 0 0 255
-0.000217299 0.000127236 0.00014116 255 0 0 255
-0.0119789 -0.100039 -0.075004 255 0 0 255
-0.00406848 0.0017049 -0.00523061 255 0 0 255
0.364184 0.182744 -0.373663 255 0 0 255
0.327036 0.409038 -0.0188902 255 0 0 255
0.0853365 -0.268675 0.102516 255 0 0 255
0.161107 -0.0563119 -0.344113 255 0 0 255
0.0086322 0.0622022 -0.175969 255 0 0 255
0.0170331 0.124281 0.155952 255 0 0 255
-0.00482878 -0.000804938 0.00688846 255 0 0 255
-0.00154147 -0.00154286 -0.000742944 255 0 0 255
-0.0188744 -0.0624165 -0.011676 255 0 0 255
-0.0188009 -0.0443036 -0.0558693 255 0 0 255
-0.0145743 0.00907869 0.117963 255 0 0 255
-0 0 0 255 0 0 255
0.333682 0.15627 0.378591 255 0 0 255
-0.00149563 -0.00129509 -0.000943229 255 0 0 255
0.608651 0.159715 0.331102 255 0 0 255
-0.0183341 0.0786278 0.0381383 255 0 0 255
-0 -0 0 255 0 0 255
0.24647 0.366023 -0.132076 255 0 0 255
-0 0 0 255 0 0 255
-0.0175705 0.0069087 -0.103139 255 0 0 255
-0 0 -0 255 0 0 255
0.505419 -0.394082 -0.0936663 255 0 0 255
-0 0 0 255 0 0 255
0.470397 -0.293583 0.287084 255 0 0 255
0.772293 -0.151213 -0.151028 255 0 0 255
0.0596808 -0.0229252 0.261122 255 0 0 255
-9.30762e-08 -5.84235e-08 3.66545e-08 255 0 0 255
0.613414 0.0651571 0.35881 255 0 0 255
-0.00212862 0.00163973 0.00177207 255 0 0 255
0.619711 0.361684 -0.0362351 255 0 0 255
-0.0169461 0.076126 0.0610976 255 0 0 255
0.186689 -0.270265 -0.240845 255 0 0 255
-0.0161652 0.101669 0.0367669 255 0 0 255
0.0584951 0.0120635 -0.26322 255 0 0 255
0.413249 -0.197674 0.36465 255 0 0 255
-0.017015 0.0437257 -0.00774494 255 0 0 255
0.11957 -0.279197 0.149792 255 0 0 255
-0 0 -0 255 0 0 255
-0.0145845 0.0717369 -0.0879216 255 0 0 255
-0.013312 0.0475266 0.112459 255 0 0 255
0.558097 -0.183857 0.342716 255 0 0 255
0.334698 0.28331 -0.30025 255 0 0 255
0.224488 -0.1044 0.363016 255 0 0 255
-0.0142124 -0.0304629 -0.00691487 255 0 0 255
-0.0111318 -0.0144604 -0.134653 255 0 0 255
-0.00261918 0.110758 0.109446 255 0 0 255
-0.000157303 -8.08796e-05 -0.00010864 255 0 0 255
0.0714194 0.168714 -0.218295 255 0 0 255
-0.00686067 0.0909999 -0.11193 255 0 0 255
-0.012538 -0.0252503 0.00318342 255 0 0 255
0.074898 -0.25689 -0.106475 255 0 0 255
-0.00325197 -0.00332437 -0.00224894 255 0 0 255
-0.00273641 -0.00193175 0.00264547 255 0 0 255
-0.00203686 -0.00204528 0.00116386 255 0 0 255
-0.0170752 0.0986394 0.0291003 255 0 0 255
-0.0184282 -0.0410693 0.0618264 255 0 0 255
-0 -0 -0 255 0 0 255
-0.00922023 0.0153276 0.00456841 255 0 0 255
0.152741 -0.257098 0.223168 255 0 0 255
0.210652 -0.321399 -0.189564 255 0 0 255
-0.0111602 -0.00334082 -0.0206345 255 0 0 255
0.0754984 0.17473 0.217186 255 0 0 255
0.178456 0.165949 0.316052 255 0 0 255
-0.00144428 -0.000915233 -0.00123517 255 0 0 255
0.497494 -0.311012 -0.263398 255 0 0 255
0.108664 -0.217073 -0.220989 255 0 0 255
0.00831551 -0.0442884 0.178324 255 0 0 255
-0.010749 -0.00670579 -0.0185564 255 0 0 255
0.645319 -0.262733 0.223367 255 0 0 255
0.742829 0.25207 0.0522108 255 0 0 255
-9.38297e-05 -5.18351e-05 5.87039e-05 255 0 0 255
0.740699 -0.237781 -0.101721 255 0 0 255
-0.00186081 0.00070534 0.00208168 255 0 0 255
0.255176 0.0919852 -0.381126 255 0 0 255
0.538977 -0.297606 -0.26268 255 0 0 255
-0.00821474 0.00762985 -0.0106569 255 0 0 255
-0.017944 0.0113442 -0.0486614 255 0 0 255
0.088613 0.109798 -0.272847 255 0 0 255
0.669653 -0.327779 0.0095149 255 0 0 255
-0.0172363 -0.101126 -0.00263861 255 0 0 255
0.558233 0.347252 0.179669 255 0 0 255
-0 -0 -0 255 0 0 255
-0.0182992 -0.0880147 -0.0210589 255 0 0 255
-0 0 -0 255 0 0 255
-0.0162623 -0.039759 -0.0080663 255 0 0 255
-0 -0 -0 255 0 0 255
0.797177 -0.0668263 0.149327 255 0 0 255
0.52823 -0.102494 -0.387773 255 0 0 255
0.577627 -0.364222 0.113141 255 0 0 255
0.115424 0.0905912 0.301829 255 0 0 255
0.451639 -0.208988 0.355958 255 0 0 255
-0.0181551 0.0490159 0.0264088 255 0 0 255
-0.015151 -0.109663 -0.02934 255 0 0 255
0.290107 -0.375475 0.136425 255 0 0 255
-0.00135006 -0.161075 -0.0194258 255 0 0 255
-0.0181323 0.041329 -0.0366325 255 0 0 255
-0.0186797 0.0274814 0.0811063 255 0 0 255
0.134161 0.111129 -0.312134 255 0 0 255
-0 -0 -0 255 0 0 255
0.0699804 -0.263505 0.0692546 255 0 0 255
0.0364734 0.2073 0.105205 255 0 0 255
0.007425 0.0764491 0.165076 255 0 0 255
0.0989463 -0.280393 0.10695 255 0 0 255
-0 0 -0 255 0 0 255
-0.00749037 -0.0113436 -0.00373081 255 0 0 255
-0.0181404 -0.0263876 0.050749 255 0 0 255
0.122423 0.146506 -0.287302 255 0 0 255
0.418284 -0.326763 0.255615 255 0 0 255
-0.0120692 -0.00262002 -0.0233799 255 0 0 255
-0.0190389 0.0259741 0.0703996 255 0 0 255
0.773522 0.207251 -0.0492944 255 0 0 255
-0.0142063 -0.0253592 -0.0175838 255 0 0 255
-0.000251148 7.51191e-05 0.000232648 255 0 0 255
-0.00316294 -0.00403438 0.00101674 255 0 0 255
-0 -0 -0 255 0 0 255
-0.01503 0.101172 0.0503401 255 0 0 255
0.0931794 0.101266 -0.280735 255 0 0 255
0.162099 0.263997 0.227381 255 0 0 255
-0.00118011 -0.00139107 8.20992e-05 255 0 0 255
0.75479 -0.0901622 -0.223719 255 0 0 255
0.181947 0.360294 0.00361185 255 0 0 255
-0.0179954 -0.0281045 -0.0447848 255 0 0 255
0.152758 0.284915 -0.192078 255 0 0 255
0.42024 0.000495127 0.414443 255 0 0 255
0.219929 -0.0851673 -0.368603 255 0 0 255
0.340108 -0.209843 -0.354648 255 0 0 255
-0.00321866 0.00425612 -0.000468826 255 0 0 255
-0.00911509 -0.000349404 -0.0156405 255 0 0 255
0.0661021 -0.267066 -0.0328767 255 0 0 255
0.020469 0.0784825 -0.193424 255 0 0 255
-0 0 -0 255 0 0 255
0.0146984 0.198651 0.0160205 255 0 0 255
-0.0129708 0.0234844 -0.0122642 255 0 0 255
0.715291 0.242372 0.156511 255 0 0 255
0.655961 -0.231967 -0.247697 255 0 0 255
-0 -0 0 255 0 0 255
-0.0176486 -0.0976791 -0.00590283 255 0 0 255
-0 -0 0 255 0 0 255
0.0814242 -0.0417359 -0.284551 255 0 0 255
-0.00571297 0.0067029 0.00462872 255 0 0 255
-0 -0 0 255 0 0 255
0.0677609 -0.232037 0.135583 255 0 0 255
0.584187 -0.343901 0.157997 255 0 0 255
-0.0065964 -0.0082115 0.00557761 255 0 0 255
-0.0172523 -0.0399588 -0.0249233 255 0 0 255
0.0757115 0.0183052 0.279157 255 0 0 255
-0.0146526 -0.0577772 0.0948605 255 0 0 255
0.201038 -0.367256 0.00669257 255 0 0 255
-0 -0 -0 255 0 0 255
0.0359585 -0.00585749 0.23192 255 0 0 255
0.218355 -0.186953 0.325605 255 0 0 255
-0.00285784 0.000827304 0.00358522 255 0 0 255
-0 0 -0 255 0 0 255
0.0870108 0.200727 -0.211609 255 0 0 255
-0.0186203 0.0881394 0.0171087 255 0 0 255
0.771781 0.0555358 -0.208778 255 0 0 255
-0 -0 -0 255 0 0 255
0.453851 0.198277 0.36306 255 0 0 255
-0.0143053 -0.115543 -0.0248347 255 0 0 255
0.199812 0.328652 -0.169722 255 0 0 255
0.0611583 0.0749996 -0.255237 255 0 0 255
-0.0159006 -0.0252361 0.030763 255 0 0 255
0.0502271 -0.0598915 0.242802 255 0 0 255
0.546103 0.24462 -0.311955 255 0 0 255
0.422744 -0.325354 -0.259641 255 0 0 255
-0.0187275 -0.0592 -0.0443555 255 0 0 255
-0.00983729 0.00206562 0.0173728 255 0 0 255
-0.011961 -0.00338166 -0.0229643 255 0 0 255
-0.00489173 -0.00783782 0.152934 255 0 0 255
0.120928 -0.300643 0.104305 255 0 0 255
-0 0 0 255 0 0 255
-0.0176467 -0.0278439 -0.0412659 255 0 0 255
0.0886814 0.292255 -0.0346732 255 0 0 255
-1.21032e-05 1.22232e-05 -3.26331e-07 255 0 0 255
0.416469 -0.234443 0.34224 255 0 0 255
-0.00461531 -0.11783 -0.0931899 255 0 0 255
-0.0022171 0.00253723 -0.000858917 255 0 0 255
-0.0177363 -0.0405889 -0.030978 255 0 0 255
0.00210145 -0.0570976 -0.162428 255 0 0 255
0.0886665 0.220692 -0.193057 255 0 0 255
0.302268 -0.236661 0.326312 255 0 0 255
0.0822772 0.131794 0.25354 255 0 0 255
-0.00258454 0.000162053 -0.00331836 255 0 0 255
-0.000436899 0.0926442 0.133192 255 0 0 255
0.0660705 -0.119338 -0.24229 255 0 0 255
-0.0117795 0.0146762 -0.0167237 255 0 0 255
-0.00868551 -0.0124715 0.00748906 255 0 0 255
-0.00248246 -0.00142588 0.00260079 255 0 0 255
-0.0121831 -0.0220218 0.0104863 255 0 0 255
0.0343091 0.0781159 -0.217465 255 0 0 255
-0.0178303 0.0339947 -0.0389431 255 0 0 255
-0.0189596 0.0688192 0.0289684 255 0 0 255
0.182854 0.344661 0.105669 255 0 0 255
0.239493 -0.380733 0.044981 255 0 0 255
0.00320638 -0.0568349 0.161929 255 0 0 255
0.438208 0.176831 -0.377706 255 0 0 255
0.734313 -0.0371882 0.263018 255 0 0 255
-0.000557215 0.0902923 -0.135804 255 0 0 255
0.327212 -0.0166058 0.406595 255 0 0 255
-0.0143927 -0.0301442 0.0121962 255 0 0 255
-4.35463e-05 4.03115e-05 -7.8182e-06 255 0 0 255
0.420666 0.0211932 -0.416445 255 0 0 255
0.0319737 -0.225393 -0.0127335 255 0 0 255
0.436932 0.414395 -0.0414071 255 0 0 255
-0.00117435 -0.000254549 -0.00132503 255 0 0 255
0.308873 -0.374078 0.152606 255 0 0 255
-0 0 0 255 0 0 255
-0.0185378 -0.0654792 -0.0466999 255 0 0 255
0.0059667 0.166277 0.0681798 255 0 0 255
-0.0125869 0.11453 0.0509099 255 0 0 255
0.338359 0.013066 0.408606 255 0 0 255
0.0358635 -0.213077 0.0852925 255 0 0 255
-0 -0 0 255 0 0 255
0.0950475 2.89751e-05 0.298088 255 0 0 255
0.000220102 0.0213536 -0.167709 255 0 0 255
-0.0011675 0.00085801 0.000851026 255 0 0 255
0.545046 -0.206126 -0.337563 255 0 0 255
0.109534 0.00253623 -0.312908 255 0 0 255
0.020493 0.157959 -0.133138 255 0 0 255
0.696698 -0.0298367 0.303551 255 0 0 255
0.470095 -0.158042 -0.381462 255 0 0 255
0.0267567 -0.136659 -0.167853 255 0 0 255
-0.00869584 0.0106734 -0.00929279 255 0 0 255
0.110118 -0.14241 0.274767 255 0 0 255
-0.00713487 0.00602571 0.00911018 255 0 0 255
0.0572292 0.260015 -0.0270225 255 0 0 255
0.00814515 0.180839 0.0420942 255 0 0 255
-0 0 0 255 0 0 255
-0.00308629 0.00156925 -0.00354279 255 0 0 255
0.040872 -0.228498 -0.0668715 255 0 0 255
0.10159 0.201412 -0.229244 255 0 0 255
0.0999832 0.299619 -0.0538801 255 0 0 255
0.361209 -0.403256 0.0836222 255 0 0 255
0.358377 -0.363459 0.194414 255 0 0 255
-0.0162947 -0.0258562 -0.0312215 255 0 0 255
0.28542 0.00201687 0.397985 255 0 0 255
-0.00506023 -0.00528426 -0.00441547 255 0 0 255
0.770747 -0.155624 0.147679 255 0 0 255
0.1677 -0.349587 0.0134893 255 0 0 255
-0.0143787 -0.0992555 -0.0579473 255 0 0 255
-0.00161799 0.00167633 0.000749841 255 0 0 255
-0.0183975 -0.0145608 0.05519 255 0 0 255
0.316101 -0.269803 0.30355 255 0 0 255
0.112581 0.260516 -0.176004 255 0 0 255
-0.0183658 0.0337535 -0.046661 255 0 0 255
-0.00680257 -0.109152 -0.0931487 255 0 0 255
0.736201 -0.193412 -0.180788 255 0 0 255
-0.0189305 -0.0678018 0.0128697 255 0 0 255
-0.017672 -0.0133813 -0.0464902 255 0 0 255
0.0782917 -0.134463 -0.248771 255 0 0 255
-4.71071e-05 -4.2262e-05 1.04759e-05 255 0 0 255
0.0840332 0.203863 -0.204474 255 0 0 255
-0.0116803 0.0902583 0.0876259 255 0 0 255
-0.018228 -0.0524155 -0.0169572 255 0 0 255
-0.0133741 0.0207687 0.0185333 255 0 0 255
0.460068 0.278966 0.305266 255 0 0 255
-0.0135102 -0.00621941 -0.0275466 255 0 0 255
0.029452 -0.1996 -0.0946889 255 0 0 255
-3.02782e-05 -2.41928e-05 -9.26109e-06 255 0 0 255
0.392231 -0.170658 0.377648 255 0 0 255
-0 -0 0 255 0 0 255
-0.0186689 0.0641882 -0.0446662 255 0 0 255
0.00364243 -0.160053 -0.0661897 255 0 0 255
-1.19739e-05 1.90726e-06 -1.08848e-05 255 0 0 255
-0 0 0 255 0 0 255
-0.00673073 -0.0257038 -0.147694 255 0 0 255
-0.0186814 -0.0602706 0.00303255 255 0 0 255
-0.00614866 -0.00150593 0.00923273 255 0 0 255
0.199719 0.162244 -0.332487 255 0 0 255
0.276532 0.205393 -0.342833 255 0 0 255
0.0388364 -0.100801 0.210719 255 0 0 255
0.570273 -0.11415 0.367035 255 0 0 255
0.281521 0.367471 -0.159147 255 0 0 255
-0.00452122 0.00727466 -0.156644 255 0 0 255
-0 -0 -0 255 0 0 255
0.182764 0.0774559 0.350255 255 0 0 255
-0.0168262 0.0223446 0.0382774 255 0 0 255
0.557884 0.0857212 0.380143 255 0 0 255
0.0217105 -0.0715123 0.195271 255 0 0 255
0.097509 -0.0248794 -0.301627 255 0 0 255
-0 0 -0 255 0 0 255
0.125416 0.161649 -0.28162 255 0 0 255
-0 0 -0 255 0 0 255
0.118334 -0.0431594 0.314144 255 0 0 255
-0.0105728 0.114883 -0.0662445 255 0 0 255
0.34691 0.412432 -0.00166281 255 0 0 255
0.0252228 0.165519 0.135325 255 0 0 255
-0.00247491 0.000423044 -0.00311754 255 0 0 255
-0 0 -0 255 0 0 255
0.483167 0.265421 0.312687 255 0 0 255
0.122218 -0.0534015 0.315493 255 0 0 255
0.122339 -0.0540854 -0.318067 255 0 0 255
-0 0 -0 255 0 0 255
0.180262 0.151735 0.324052 255 0 0 255
0.193917 0.243363 0.273226 255 0 0 255
-0.0109026 -0.00965193 0.0178819 255 0 0 255
-0.00428283 -0.00303862 -0.0047512 255 0 0 255
0.662365 -0.330043 0.0463918 255 0 0 255
-0.0120949 0.00319218 0.0235544 255 0 0 255
-2.14871e-06 -1.71016e-06 5.39473e-07 255 0 0 255
-0.017052 0.0500862 -0.0869483 255 0 0 255
-0.00795692 0.00836903 -0.00926313 255 0 0 255
-0.0183532 0.0848735 -0.0313891 255 0 0 255
0.558646 -0.165168 -0.354387 255 0 0 255
-0.0194833 -0.00414492 -0.0802493 255 0 0 255
-0.00177863 0.000775637 0.00190595 255 0 0 255
-2.37206e-05 5.0207e-06 -2.08796e-05 255 0 0 255
-0 -0 -0 255 0 0 255
0.482275 -0.134137 0.386169 255 0 0 255
-0.0111635 0.133249 0.0147057 255 0 0 255
0.107565 0.0255211 0.307813 255 0 0 255
0.00694449 -0.0363663 0.177488 255 0 0 255
-9.41754e-06 -5.19969e-06 4.97372e-06 255 0 0 255
0.32151 0.0847711 0.397643 255 0 0 255
0.697514 0.303922 0.040452 255 0 0 255
0.193132 -0.363445 0.00598881 255 0 0 255
0.0583546 -0.174685 -0.192212 255 0 0 255
-0.000126192 0.00013312 -6.27558e-08 255 0 0 255
0.213721 0.201599 0.315988 255 0 0 255
0.639427 -0.198987 -0.288818 255 0 0 255
0.328792 -0.168867 0.371307 255 0 0 255
-0 0 -0 255 0 0 255
0.657918 -0.248913 -0.228412 255 0 0 255
0.0130436 -0.157661 0.105829 255 0 0 255
0.332596 0.275543 0.304551 255 0 0 255
-0.00596902 -0.0644843 0.130979 255 0 0 255
0.423547 0.379275 0.17256 255 0 0 255
0.173164 -0.120309 -0.334319 255 0 0 255
0.418056 0.0363523 -0.41549 255 0 0 255
-0.000416443 0.000262825 -0.000276831 255 0 0 255
0.261729 0.163403 0.356926 255 0 0 255
-0.00473127 0.154875 0.0105256 255 0 0 255
0.64767 0.300608 0.17007 255 0 0 255
-0 0 0 255 0 0 255
-0 -0 -0 255 0 0 255
-0.0182309 -0.0286783 0.0839121 255 0 0 255
0.00394866 0.0682329 0.160598 255 0 0 255
0.138922 -0.207074 -0.261039 255 0 0 255
0.173681 -0.347747 0.0610055 255 0 0 255
-0.00243425 0.0030523 0.000514928 255 0 0 255
-0.0172273 -0.0272146 0.0957151 255 0 0 255
0.676599 -0.172636 0.271779 255 0 0 255
0.0361738 -0.205666 0.101659 255 0 0 255
-0.0180968 0.0353716 0.0430765 255 0 0 255
0.318126 0.392047 -0.114926 255 0 0 255
-0 -0 -0 255 0 0 255
-0.00901297 0.00294165 -0.0150589 255 0 0 255
0.235346 0.342122 0.175616 255 0 0 255
0.100568 -0.1599 -0.257934 255 0 0 255
-1.49697e-05 -1.26855e-05 3.53393e-06 255 0 0 255
-0.00666913 -0.00918697 0.00449058 255 0 0 255
-0.00946177 0.00344897 0.0161748 255 0 0 255
-0.00412363 0.00489616 -0.00242513 255 0 0 255
-0.00158164 0.00138489 0.00102684 255 0 0 255
-0.0166412 0.106382 0.0158145 255 0 0 255
-0 -0 -0 255 0 0 255
0.0189644 0.20626 -0.0180391 255 0 0 255
-0 0 0 255 0 0 255
0.0795305 0.0900945 0.268661 255 0 0 255
-0.0109134 0.00609813 -0.0191521 255 0 0 255
-0 -0 0 255 0 0 255
0.760674 0.0869899 -0.216751 255 0 0 255
0.251169 0.372142 -0.118856 255 0 0 255
0.0999857 -0.170385 0.247553 255 0 0 255
-0.0170749 -0.0435223 -0.0922463 255 0 0 255
0.550245 0.181679 -0.350709 255 0 0 255
0.00876602 0.187753 0.000324712 255 0 0 255
0.0447201 0.217341 0.110632 255 0 0 255
-3.81261e-06 -4.57608e-07 -3.51271e-06 255 0 0 255
-0 0 0 255 0 0 255
0.217999 0.0888489 -0.367399 255 0 0 255
-0.00431704 0.00461914 0.00333616 255 0 0 255
-0.0187518 0.073293 0.0336365 255 0 0 255
-0 0 0 255 0 0 255
0.203968 -0.361433 0.0718868 255 0 0 255
-0.0122463 0.0242893 -0.000192427 255 0 0 255
0.171432 -0.140385 -0.325212 255 0 0 255
0.107689 0.209248 0.227459 255 0 0 255
-0.0109021 0.131386 -0.0286925 255 0 0 255
-0.018064 0.0526195 -0.0714002 255 0 0 255
0.369295 -0.373334 -0.179287 255 0 0 255
-0.0171161 0.0184766 0.0420058 255 0 0 255
-0.0186746 0.043024 -0.0481737 255 0 0 255
-0.00591799 -0.00888935 0.00120574 255 0 0 255
-0 -0 -0 255 0 0 255
0.15886 -0.164317 -0.305192 255 0 0 255
0.399924 -0.167191 0.379406 255 0 0 255
0.114887 -0.000129376 -0.317186 255 0 0 255
0.0895939 0.00741218 0.293085 255 0 0 255
0.124865 -0.125439 -0.298452 255 0 0 255
0.00182041 0.149511 -0.0801599 255 0 0 255
0.0645458 0.0727155 -0.259912 255 0 0 255
0.151521 0.337815 -0.0577979 255 0 0 255
0.767329 -0.0254631 0.21891 255 0 0 255
0.111051 -0.0339584 -0.312139 255 0 0 255
0.130196 0.0425359 0.32347 255 0 0 255
0.211565 0.162412 0.336218 255 0 0 255
-0.00406134 -0.00506742 0.0021062 255 0 0 255
0.426149 -0.240458 -0.340168 255 0 0 255
0.0366932 -0.229727 0.0333097 255 0 0 255
0.70535 0.0388483 -0.29705 255 0 0 255
0.152219 -0.0591013 -0.338086 255 0 0 255
-0.00487678 -0.00675482 0.00183846 255 0 0 255
-0.0192453 -0.0223875 -0.0655106 255 0 0 255
0.605255 -0.209456 0.302933 255 0 0 255
-0.00527587 0.0027302 0.00705102 255 0 0 255
-0.0190508 0.0234305 0.0659246 255 0 0 255
0.262302 -0.18525 0.345352 255 0 0 255
-0.00213369 0.14755 -0.0628396 255 0 0 255
0.182646 0.357635 0.0458051 255 0 0 255
-0.00183826 0.0945272 0.12704 255 0 0 255
0.317475 -0.316659 -0.25708 255 0 0 255
0.154929 0.27371 0.208399 255 0 0 255
-0.00575205 0.00617096 -0.00525535 255 0 0 255
-0 -0 -0 255 0 0 255
0.0326625 0.195451 0.114355 255 0 0 255
0.583051 -0.33044 0.185427 255 0 0 255
-0.00476029 -0.00455642 -0.00443284 255 0 0 255
-0.00996935 -0.00678497 0.0165057 255 0 0 255
0.636312 -0.350648 -0.0205426 255 0 0 255
-0 -0 0 255 0 0 255
-0.00933863 -0.133606 -0.0349097 255 0 0 255
-0.0127139 0.0215227 0.0140395 255 0 0 255
0.215528 0.37567 -0.0243875 255 0 0 255
0.316179 -0.386822 0.120913 255 0 0 255
-0.0186671 0.0458299 0.0565772 255 0 0 255
0.352082 -0.297618 0.28459 255 0 0 255
0.617175 0.32167 -0.173015 255 0 0 255
0.646345 0.0912785 0.332674 255 0 0 255
0.520138 0.230252 0.329581 255 0 0 255
0.529357 -0.265713 0.296542 255 0 0 255
0.409202 0.308905 0.279813 255 0 0 255
-0.000437958 0.000238712 0.000333666 255 0 0 255
0.451652 0.0364195 -0.413891 255 0 0 255
-0.0073956 -0.0119517 0.000136048 255 0 0 255
0.0710047 0.160621 0.22195 255 0 0 255
0.164986 -0.0353846 -0.349302 255 0 0 255
0.204883 -0.00146308 -0.371952 255 0 0 255
-0.00994649 0.00698394 0.0161873 255 0 0 255
